-0.048   +0.030   -0.016   -0.006   +0.093   -0.100      
-0.065   +0.043   -0.018   +0.111   +0.004   -0.006      
-0.033   +0.042   -0.009   +0.090   -0.103   +0.089      
+0.019   +0.032   -0.009   -0.037   -0.080   +0.095      
+0.047   +0.027   -0.012   -0.078   +0.036   +0.035      
+0.032   +0.008   -0.013   +0.045   +0.079   +0.017      
-0.007   -0.007   -0.002   +0.166   +0.003   +0.019      
-0.016   -0.008   +0.009   +0.116   -0.044   +0.002      
-0.005   +0.001   +0.022   -0.044   +0.010   -0.033      
+0.025   +0.008   +0.028   -0.147   +0.101   -0.050      
+0.030   -0.001   +0.051   -0.131   +0.109   -0.045      
+0.004   -0.012   +0.055   -0.050   +0.026   -0.018      
-0.030   -0.026   +0.039   +0.009   -0.056   +0.024      
-0.038   -0.030   +0.006   +0.016   -0.073   +0.051      
-0.004   -0.032   -0.009   +0.016   -0.016   +0.036      
+0.041   -0.037   -0.009   +0.012   +0.023   +0.021      
+0.051   -0.032   +0.001   +0.020   +0.014   +0.024      
+0.019   -0.036   +0.001   -0.004   +0.018   +0.021      
-0.028   -0.017   +0.003   -0.025   +0.045   -0.015      
-0.035   -0.014   +0.001   -0.016   +0.047   -0.054      
-0.015   -0.006   +0.001   +0.025   +0.022   -0.030      
+0.011   +0.001   -0.016   +0.001   -0.003   +0.031      
+0.026   -0.004   -0.011   -0.085   +0.012   +0.044      
+0.013   -0.015   -0.011   -0.120   +0.022   +0.002      
-0.013   -0.023   -0.013   -0.035   +0.003   -0.025      
-0.031   -0.016   -0.023   +0.093   +0.001   -0.004      
-0.013   -0.013   -0.023   +0.108   +0.006   +0.031      
+0.021   -0.014   -0.026   +0.006   +0.011   +0.023      
+0.036   -0.008   -0.016   -0.085   +0.039   -0.023      
+0.004   +0.002   -0.016   -0.082   +0.064   -0.043      
-0.032   +0.021   -0.017   -0.006   +0.027   -0.007      
-0.030   +0.024   -0.027   +0.048   -0.029   +0.044      
+0.010   +0.027   -0.030   +0.020   -0.018   +0.035      
+0.037   +0.029   -0.024   -0.033   +0.066   -0.025      
+0.022   +0.037   -0.002   -0.031   +0.080   -0.049      
-0.017   +0.034   +0.011   +0.018   -0.013   +0.007      
-0.041   +0.014   +0.015   +0.023   -0.061   +0.074      
-0.045   +0.003   +0.024   -0.023   -0.007   +0.076      
-0.007   +0.005   +0.040   -0.059   +0.065   +0.007      
+0.033   +0.019   +0.059   -0.029   +0.073   -0.071      
+0.048   +0.012   +0.069   +0.061   +0.002   -0.049      
+0.020   +0.002   +0.056   +0.050   -0.055   +0.017      
-0.015   +0.008   +0.042   -0.037   -0.030   +0.029      
-0.028   +0.026   +0.020   -0.119   +0.047   -0.042      
-0.005   +0.040   +0.002   -0.070   +0.096   -0.080      
+0.027   +0.026   +0.008   +0.071   +0.043   -0.014      
+0.021   +0.010   -0.002   +0.125   -0.066   +0.084      
-0.015   -0.006   -0.027   +0.045   -0.077   +0.094      
-0.043   -0.008   -0.052   -0.045   +0.028   +0.035      
-0.017   -0.017   -0.051   -0.044   +0.098   -0.006      
+0.030   -0.022   -0.032   +0.016   +0.054   +0.003      
+0.051   -0.021   -0.010   +0.010   -0.033   -0.002      
+0.017   -0.025   -0.004   -0.061   -0.051   -0.026      
-0.026   -0.022   -0.010   -0.082   -0.005   -0.047      
-0.035   -0.022   -0.014   -0.045   +0.046   -0.054      
-0.007   -0.020   -0.021   +0.002   +0.041   -0.028      
+0.025   -0.011   -0.024   +0.009   -0.006   +0.014      
+0.035   -0.008   -0.009   -0.004   -0.029   +0.053      
+0.020   -0.008   +0.004   +0.024   -0.024   +0.060      
-0.010   -0.017   +0.005   +0.088   -0.006   +0.050      
-0.034   -0.008   -0.001   +0.133   -0.014   +0.041      
-0.020   +0.008   -0.001   +0.099   -0.035   +0.041      
+0.009   +0.015   +0.001   -0.014   -0.007   +0.012      
+0.025   +0.003   +0.003   -0.125   +0.040   -0.054      
-0.001   -0.019   -0.002   -0.125   +0.031   -0.052      
-0.036   -0.015   -0.007   -0.070   +0.013   -0.003      
-0.043   -0.003   -0.002   -0.061   +0.036   +0.010      
+0.000   +0.004   +0.005   -0.065   +0.039   -0.021      
+0.035   +0.007   +0.013   -0.019   +0.002   -0.024      
+0.040   +0.016   +0.028   +0.082   -0.045   +0.024      
+0.003   +0.022   +0.032   +0.128   -0.075   +0.094      
-0.038   +0.012   +0.023   +0.071   -0.081   +0.096      
-0.050   +0.005   +0.020   +0.004   -0.038   +0.023      
-0.020   +0.005   +0.023   -0.009   +0.021   -0.040      
+0.023   +0.016   +0.020   +0.013   +0.030   -0.042      
+0.042   +0.016   +0.013   +0.011   -0.024   +0.009      
+0.010   +0.001   +0.003   -0.060   -0.029   +0.021      
-0.032   -0.002   -0.004   -0.114   +0.040   -0.018      
-0.044   -0.001   +0.003   -0.060   +0.058   -0.040      
+0.021   +0.003   -0.005   +0.059   -0.012   +0.001      
+0.069   -0.008   +0.000   +0.110   -0.094   +0.072      
+0.055   -0.021   +0.000   +0.054   -0.081   +0.100      
-0.030   -0.022   -0.009   -0.038   +0.025   +0.050      
-0.106   -0.012   -0.033   -0.038   +0.072   -0.028      
-0.098   +0.004   -0.043   +0.034   +0.027   -0.048      
-0.001   +0.013   -0.033   +0.075   -0.029   -0.010      
+0.098   +0.031   -0.006   +0.001   -0.053   +0.038      
+0.110   +0.033   +0.010   -0.134   -0.006   +0.013      
+0.027   +0.018   +0.007   -0.185   +0.054   -0.039      
-0.067   -0.001   -0.005   -0.087   +0.045   -0.010      
-0.095   -0.010   -0.010   +0.016   -0.043   +0.068      
-0.053   -0.002   -0.010   +0.053   -0.086   +0.085      
+0.005   +0.007   +0.002   +0.057   -0.039   +0.024      
+0.046   +0.003   +0.003   +0.068   +0.030   -0.042      
+0.043   -0.026   +0.001   +0.084   +0.028   -0.024      
+0.008   -0.043   -0.013   +0.045   -0.036   +0.008      
-0.018   -0.029   -0.029   -0.056   -0.049   -0.003      
-0.014   -0.004   -0.034   -0.120   -0.009   -0.031      
+0.009   +0.021   -0.013   -0.066   +0.017   -0.036      
+0.009   +0.024   +0.012   +0.021   +0.005   -0.005      
-0.019   +0.020   +0.023   +0.064   -0.041   +0.026      
-0.034   +0.012   +0.030   +0.041   -0.064   +0.042      
-0.007   +0.009   +0.039   +0.006   -0.033   +0.030      
+0.038   +0.005   +0.043   +0.008   +0.011   +0.006      
+0.054   -0.016   +0.036   +0.034   +0.026   +0.005      
+0.026   -0.034   +0.035   +0.031   +0.001   +0.015      
-0.023   -0.048   +0.044   -0.020   -0.012   +0.000      
-0.061   -0.040   +0.053   -0.078   +0.008   -0.047      
-0.049   -0.023   +0.048   -0.083   -0.002   -0.061      
+0.000   -0.006   +0.020   -0.028   -0.037   -0.003      
+0.051   +0.006   -0.002   -0.005   -0.026   +0.035      
+0.058   +0.001   -0.019   -0.037   +0.014   +0.007      
+0.029   +0.003   -0.033   -0.030   +0.026   -0.034      
-0.007   +0.006   -0.047   +0.038   -0.014   -0.028      
-0.009   +0.020   -0.047   +0.096   -0.045   +0.029      
+0.013   +0.039   -0.032   +0.068   -0.036   +0.058      
+0.025   +0.048   -0.005   -0.024   +0.002   +0.005      
+0.008   +0.054   +0.003   -0.050   +0.049   -0.078      
-0.035   +0.053   -0.009   -0.001   +0.053   -0.087      
-0.063   +0.050   -0.036   +0.033   -0.006   -0.024      
-0.047   +0.032   -0.044   -0.016   -0.051   +0.029      
-0.004   +0.020   -0.039   -0.093   -0.016   +0.009      
+0.030   +0.016   -0.019   -0.077   +0.045   -0.047      
+0.022   +0.008   -0.008   +0.042   -0.006   -0.040      
-0.002   +0.005   -0.001   +0.149   -0.124   +0.021      
-0.022   -0.007   +0.002   +0.141   -0.131   +0.051      
-0.016   -0.002   +0.002   +0.043   -0.014   +0.009      
+0.008   -0.008   +0.003   -0.030   +0.089   -0.062      
+0.033   -0.021   +0.017   -0.039   +0.094   -0.105      
+0.029   -0.042   +0.032   -0.022   +0.026   -0.055      
-0.007   -0.054   +0.041   -0.048   -0.020   +0.008      
-0.033   -0.045   +0.037   -0.095   +0.001   +0.016      
-0.018   -0.039   +0.034   -0.083   +0.039   -0.045      
+0.011   -0.031   +0.032   +0.011   +0.021   -0.075      
+0.009   -0.030   +0.043   +0.111   -0.058   -0.009      
-0.021   -0.027   +0.040   +0.094   -0.123   +0.073      
-0.022   -0.025   +0.032   -0.026   -0.069   +0.048      
+0.012   -0.031   +0.019   -0.090   +0.048   -0.036      
+0.046   -0.025   +0.001   -0.013   +0.087   -0.076      
+0.040   -0.014   -0.010   +0.069   +0.031   -0.055      
+0.019   +0.003   -0.013   +0.057   -0.029   -0.050      
-0.020   -0.001   -0.013   -0.027   -0.016   -0.073      
-0.043   +0.007   -0.008   -0.048   +0.025   -0.066      
-0.041   +0.019   -0.002   -0.007   +0.037   -0.030      
-0.008   +0.036   -0.011   +0.045   -0.004   +0.015      
+0.025   +0.043   -0.032   +0.067   -0.064   +0.046      
+0.027   +0.028   -0.037   +0.071   -0.083   +0.041      
-0.004   +0.013   -0.045   +0.072   -0.051   +0.002      
-0.023   +0.014   -0.049   +0.076   -0.009   -0.030      
-0.013   +0.031   -0.051   +0.045   -0.001   -0.034      
+0.015   +0.052   -0.038   -0.029   +0.011   -0.044      
+0.020   +0.050   -0.004   -0.104   +0.057   -0.075      
+0.002   +0.045   +0.023   -0.107   +0.077   -0.096      
-0.022   +0.021   +0.029   -0.042   +0.042   -0.069      
-0.022   +0.016   +0.014   +0.013   +0.014   -0.014      
+0.002   +0.008   +0.005   +0.008   +0.028   -0.009      
+0.030   +0.002   +0.007   +0.008   +0.034   -0.039      
+0.034   +0.006   +0.012   +0.067   -0.030   -0.037      
+0.002   -0.009   +0.013   +0.120   -0.084   +0.027      
-0.030   -0.020   +0.023   +0.091   -0.079   +0.078      
-0.030   -0.026   +0.039   -0.011   -0.026   +0.032      
-0.009   -0.022   +0.042   -0.074   +0.023   -0.082      
+0.026   -0.019   +0.034   -0.025   +0.042   -0.149      
+0.036   -0.029   +0.022   +0.039   -0.005   -0.094      
+0.026   -0.044   +0.013   -0.009   -0.063   -0.014      
-0.006   -0.056   +0.009   -0.137   -0.023   +0.002      
-0.025   -0.049   +0.002   -0.190   +0.081   -0.044      
-0.012   -0.050   +0.004   -0.068   +0.112   -0.051      
+0.019   -0.050   +0.009   +0.121   -0.002   +0.015      
+0.024   -0.040   +0.014   +0.194   -0.112   +0.070      
-0.003   -0.037   -0.001   +0.116   -0.066   +0.044      
-0.027   -0.024   -0.023   +0.001   +0.054   -0.050      
-0.017   -0.002   -0.033   -0.068   +0.089   -0.119      
+0.016   +0.012   -0.025   -0.059   +0.024   -0.102      
+0.032   +0.019   -0.032   -0.041   -0.047   -0.050      
+0.011   +0.030   -0.020   -0.048   -0.056   -0.009      
-0.016   +0.038   -0.008   -0.077   +0.004   -0.050      
-0.030   +0.044   -0.004   -0.060   +0.058   -0.090      
-0.021   +0.057   -0.002   +0.017   +0.038   -0.040      
-0.002   +0.054   -0.009   +0.065   -0.026   +0.048      
+0.013   +0.048   -0.010   +0.026   -0.051   +0.060      
+0.011   +0.027   -0.001   +0.000   -0.021   -0.004      
-0.005   +0.012   +0.003   +0.047   +0.033   -0.059      
-0.018   +0.019   -0.001   +0.112   +0.012   -0.055      
-0.012   +0.031   -0.013   +0.066   -0.045   -0.032      
+0.011   +0.042   -0.017   -0.071   -0.043   -0.052      
+0.027   +0.027   -0.010   -0.173   +0.006   -0.080      
+0.016   +0.023   +0.006   -0.126   +0.041   -0.076      
-0.002   +0.008   +0.013   -0.028   +0.037   -0.056      
-0.006   -0.001   +0.016   +0.045   -0.014   -0.030      
+0.020   -0.004   +0.024   +0.064   -0.042   -0.005      
+0.013   -0.017   +0.026   +0.060   -0.023   -0.007      
-0.006   -0.017   +0.011   +0.066   +0.003   -0.002      
-0.034   -0.020   -0.001   +0.058   -0.005   +0.002      
-0.035   -0.023   -0.006   +0.032   -0.007   +0.002      
-0.009   -0.027   +0.003   -0.017   +0.015   -0.028      
+0.020   -0.031   +0.008   -0.062   +0.038   -0.073      
+0.030   -0.023   +0.009   -0.065   +0.006   -0.075      
+0.021   -0.020   +0.006   -0.062   -0.023   -0.030      
+0.004   -0.016   +0.014   -0.078   +0.015   -0.018      
-0.015   -0.017   +0.017   -0.058   +0.040   -0.048      
-0.022   -0.002   +0.016   +0.025   -0.002   -0.065      
-0.011   +0.013   +0.013   +0.116   -0.061   -0.040      
+0.001   +0.012   +0.016   +0.127   -0.071   +0.037      
+0.014   +0.022   +0.014   +0.014   -0.041   +0.065      
+0.003   +0.010   +0.009   -0.109   +0.014   +0.003      
-0.004   +0.013   -0.009   -0.118   +0.037   -0.059      
+0.007   +0.013   -0.018   -0.024   +0.013   -0.052      
+0.020   +0.023   -0.012   +0.051   -0.052   -0.004      
+0.023   +0.029   -0.009   +0.016   -0.055   -0.003      
+0.001   +0.033   -0.016   -0.068   +0.031   -0.073      
-0.020   +0.031   -0.011   -0.051   +0.092   -0.098      
-0.030   +0.014   -0.013   +0.030   +0.019   -0.030      
-0.017   +0.011   -0.012   +0.070   -0.104   +0.053      
+0.005   +0.009   -0.015   +0.028   -0.120   +0.081      
+0.017   +0.004   -0.017   -0.017   -0.006   +0.028      
+0.006   -0.009   -0.022   -0.014   +0.082   -0.061      
-0.014   -0.029   -0.018   +0.043   +0.041   -0.082      
-0.020   -0.025   -0.011   +0.051   -0.030   -0.040      
+0.004   -0.016   +0.006   -0.025   -0.047   -0.004      
+0.036   -0.003   +0.016   -0.113   +0.010   -0.015      
+0.051   -0.001   +0.023   -0.132   +0.069   -0.059      
+0.020   -0.015   +0.019   -0.030   +0.050   -0.042      
-0.016   -0.029   +0.018   +0.089   -0.042   +0.040      
-0.038   -0.043   +0.015   +0.099   -0.090   +0.084      
-0.025   -0.035   +0.007   +0.026   -0.059   +0.037      
+0.004   -0.027   +0.006   -0.007   +0.008   -0.030      
+0.010   -0.011   +0.007   +0.041   +0.020   -0.040      
-0.001   -0.007   +0.008   +0.086   -0.030   -0.011      
-0.016   -0.016   +0.006   +0.040   -0.065   -0.023      
-0.011   -0.013   +0.008   -0.037   -0.037   -0.063      
+0.010   +0.005   +0.020   -0.032   +0.011   -0.069      
+0.021   +0.028   +0.021   +0.004   +0.060   -0.035      
+0.017   +0.020   +0.010   +0.012   +0.046   +0.004      
+0.001   +0.004   +0.004   -0.020   +0.000   +0.023      
-0.004   -0.009   +0.007   -0.028   -0.027   +0.034      
-0.009   -0.011   +0.001   +0.009   -0.021   +0.045      
-0.002   +0.005   -0.012   +0.037   -0.016   +0.055      
+0.003   -0.009   -0.021   +0.009   -0.019   +0.029      
-0.001   -0.007   -0.026   -0.035   -0.018   -0.018      
-0.021   -0.003   -0.036   -0.036   +0.019   -0.085      
-0.032   +0.008   -0.033   +0.030   -0.002   -0.094      
-0.020   +0.017   -0.036   +0.090   -0.049   -0.047      
+0.011   +0.010   -0.016   +0.053   -0.025   -0.007      
+0.029   +0.012   -0.008   -0.044   +0.040   -0.004      
+0.024   +0.016   -0.010   -0.099   +0.050   -0.009      
+0.001   +0.023   -0.004   -0.057   -0.005   +0.018      
-0.008   +0.020   +0.006   +0.019   -0.043   +0.072      
-0.011   +0.015   +0.011   +0.043   -0.018   +0.082      
-0.004   +0.014   +0.010   +0.007   +0.018   +0.004      
+0.002   +0.005   +0.002   +0.008   +0.025   -0.075      
+0.018   +0.000   +0.004   +0.040   -0.005   -0.065      
+0.018   -0.008   +0.011   +0.034   -0.064   +0.019      
-0.006   -0.010   +0.005   -0.051   -0.085   +0.062      
-0.030   -0.004   +0.007   -0.127   -0.026   +0.013      
-0.024   -0.004   +0.005   -0.081   +0.048   -0.059      
-0.004   -0.003   +0.013   +0.070   +0.012   -0.036      
+0.023   -0.002   +0.025   +0.152   -0.106   +0.052      
+0.015   +0.004   +0.020   +0.079   -0.126   +0.094      
+0.007   -0.007   +0.006   -0.066   -0.012   +0.053      
-0.006   -0.023   -0.004   -0.090   +0.088   -0.025      
-0.004   -0.037   -0.004   +0.000   +0.078   -0.064      
+0.002   -0.038   -0.006   +0.077   -0.006   -0.029      
+0.025   -0.026   -0.006   +0.036   -0.035   +0.011      
+0.038   -0.026   -0.001   -0.066   +0.015   +0.013      
+0.034   -0.017   +0.000   -0.130   +0.084   -0.025      
+0.009   -0.003   -0.011   -0.081   +0.084   -0.044      
-0.009   +0.010   -0.032   +0.033   -0.009   +0.017      
-0.031   +0.018   -0.042   +0.101   -0.108   +0.082      
-0.043   +0.012   -0.032   +0.080   -0.095   +0.070      
-0.041   +0.012   -0.003   +0.033   +0.003   -0.001      
-0.021   +0.041   +0.023   +0.027   +0.050   -0.026      
+0.012   +0.077   +0.030   +0.006   +0.029   -0.006      
+0.038   +0.069   +0.033   -0.065   +0.001   -0.003      
+0.035   +0.032   +0.040   -0.123   +0.004   -0.039      
+0.016   -0.003   +0.026   -0.089   +0.026   -0.042      
-0.022   -0.016   +0.010   -0.003   +0.028   -0.004      
-0.051   +0.006   -0.005   +0.027   +0.014   +0.035      
-0.049   +0.028   -0.007   +0.011   -0.039   +0.048      
-0.004   +0.042   -0.004   +0.004   -0.078   +0.041      
+0.038   +0.034   -0.003   +0.033   -0.057   +0.031      
+0.041   +0.018   +0.001   +0.063   -0.026   +0.034      
+0.008   -0.016   +0.012   +0.037   -0.023   +0.026      
-0.024   -0.048   +0.011   -0.029   +0.000   -0.015      
-0.021   -0.052   +0.008   -0.082   +0.043   -0.067      
+0.008   -0.032   +0.000   -0.074   +0.054   -0.071      
+0.042   -0.006   -0.001   -0.016   -0.009   -0.024      
+0.022   -0.001   -0.001   +0.025   -0.044   +0.033      
-0.018   -0.023   +0.007   +0.020   +0.007   +0.028      
-0.040   -0.045   -0.005   +0.011   +0.046   -0.002      
-0.011   -0.051   +0.000   +0.029   -0.017   +0.015      
+0.028   -0.036   -0.008   +0.041   -0.082   +0.065      
+0.031   -0.028   -0.015   +0.004   -0.049   +0.094      
-0.008   -0.020   -0.027   -0.063   +0.031   +0.040      
-0.031   -0.017   -0.029   -0.085   +0.073   -0.063      
-0.017   -0.011   -0.030   -0.035   +0.058   -0.097      
+0.010   -0.001   -0.019   +0.000   +0.010   -0.033      
+0.016   +0.002   -0.011   -0.053   -0.024   +0.039      
+0.004   +0.006   +0.001   -0.163   +0.007   +0.030      
-0.003   -0.011   +0.009   -0.167   +0.076   -0.041      
+0.002   -0.007   +0.022   +0.005   +0.071   -0.039      
+0.005   +0.012   +0.029   +0.195   -0.059   +0.058      
+0.009   +0.029   +0.025   +0.216   -0.156   +0.138      
+0.023   +0.039   +0.007   +0.067   -0.079   +0.108      
+0.032   +0.006   -0.015   -0.087   +0.067   +0.006      
+0.019   +0.001   -0.016   -0.102   +0.105   -0.063      
-0.017   +0.019   -0.004   -0.025   +0.031   -0.055      
-0.052   +0.053   -0.024   +0.014   -0.036   -0.016      
-0.052   +0.066   -0.019   -0.021   -0.031   +0.006      
-0.016   +0.053   -0.002   -0.072   +0.039   -0.020      
+0.024   +0.041   +0.032   -0.061   +0.079   -0.044      
+0.025   +0.029   +0.039   +0.024   +0.027   +0.001      
-0.004   +0.019   +0.028   +0.086   -0.047   +0.075      
-0.025   -0.002   +0.014   +0.073   -0.078   +0.086      
-0.008   -0.002   +0.017   +0.035   -0.023   +0.040      
+0.023   +0.002   +0.020   +0.011   +0.047   +0.008      
+0.030   +0.004   +0.021   -0.008   +0.052   +0.024      
+0.007   -0.006   +0.024   -0.069   +0.013   +0.035      
-0.021   -0.028   +0.018   -0.129   +0.006   -0.014      
-0.037   -0.037   +0.002   -0.095   +0.016   -0.061      
-0.018   -0.034   -0.007   +0.020   +0.020   -0.051      
+0.000   -0.027   -0.019   +0.086   +0.010   -0.010      
+0.038   -0.022   -0.005   +0.045   -0.018   +0.011      
+0.039   -0.037   -0.001   -0.043   -0.018   +0.000      
+0.010   -0.052   -0.014   -0.056   +0.004   +0.010      
-0.025   -0.060   -0.031   +0.006   +0.018   +0.042      
-0.010   -0.042   -0.028   +0.058   +0.027   +0.063      
+0.034   -0.020   -0.012   +0.059   +0.011   +0.034      
+0.049   -0.002   +0.003   +0.041   +0.035   -0.029      
+0.006   +0.008   +0.005   +0.026   +0.060   -0.076      
-0.046   +0.003   -0.001   +0.020   +0.020   -0.052      
-0.063   +0.004   -0.007   -0.028   -0.025   -0.002      
-0.031   -0.002   -0.005   -0.093   +0.019   +0.010      
+0.011   +0.007   -0.005   -0.093   +0.060   -0.012      
+0.038   +0.007   -0.004   -0.012   +0.011   -0.025      
+0.032   -0.003   -0.017   +0.088   -0.080   +0.008      
+0.007   -0.006   -0.022   +0.112   -0.103   +0.064      
-0.015   -0.002   -0.025   +0.021   -0.013   +0.052      
-0.008   +0.019   -0.027   -0.086   +0.078   -0.026      
+0.011   +0.017   -0.018   -0.094   +0.070   -0.078      
+0.021   +0.010   -0.010   -0.020   +0.019   -0.051      
+0.000   +0.007   +0.005   +0.033   -0.040   +0.020      
-0.030   +0.017   +0.017   +0.002   -0.034   +0.025      
-0.035   +0.028   +0.026   -0.066   +0.038   -0.051      
-0.011   +0.025   +0.037   -0.050   +0.066   -0.085      
+0.010   +0.018   +0.037   +0.025   +0.005   -0.014      
+0.017   +0.010   +0.032   +0.056   -0.092   +0.081      
+0.007   -0.002   +0.018   +0.026   -0.086   +0.084      
+0.001   -0.005   +0.011   -0.003   +0.027   -0.005      
+0.005   -0.006   +0.002   +0.036   +0.099   -0.069      
+0.018   -0.004   +0.004   +0.065   +0.078   -0.069      
+0.014   -0.013   -0.003   +0.009   +0.027   -0.040      
+0.018   -0.020   +0.004   -0.079   +0.007   -0.018      
-0.003   -0.032   +0.007   -0.113   +0.054   -0.038      
-0.029   -0.029   -0.004   -0.061   +0.079   -0.059      
-0.030   -0.013   -0.015   +0.038   +0.014   -0.019      
-0.002   -0.003   -0.022   +0.078   -0.074   +0.062      
+0.032   +0.001   -0.019   +0.016   -0.098   +0.097      
+0.038   -0.011   -0.006   -0.058   -0.029   +0.044      
+0.009   -0.007   -0.001   -0.051   +0.057   -0.040      
-0.025   -0.011   -0.004   +0.043   +0.047   -0.058      
-0.033   +0.011   -0.004   +0.108   -0.005   -0.029      
-0.014   +0.018   +0.004   +0.052   -0.021   -0.043      
+0.005   +0.023   +0.019   -0.053   -0.010   -0.061      
+0.010   +0.012   +0.014   -0.099   +0.025   -0.046      
+0.004   -0.005   +0.008   -0.075   +0.031   +0.000      
+0.003   -0.017   -0.007   -0.029   +0.011   +0.034      
+0.010   -0.013   -0.005   +0.013   -0.016   +0.018      
+0.020   -0.006   -0.001   +0.069   -0.037   +0.002      
+0.018   +0.007   +0.000   +0.114   -0.018   +0.014      
+0.000   +0.005   -0.004   +0.079   +0.020   +0.034      
-0.027   +0.010   -0.003   -0.015   +0.030   +0.008      
-0.041   +0.010   -0.013   -0.086   +0.044   -0.043      
-0.029   +0.020   -0.029   -0.066   +0.065   -0.074      
+0.006   +0.012   -0.041   +0.002   +0.026   -0.050      
+0.036   +0.006   -0.026   +0.007   -0.037   +0.011      
+0.035   +0.000   -0.008   -0.062   -0.029   +0.030      
+0.014   -0.008   +0.010   -0.114   +0.038   -0.003      
-0.020   -0.003   +0.007   -0.061   +0.050   -0.028      
-0.021   -0.003   +0.016   +0.056   -0.049   +0.012      
-0.005   -0.001   +0.025   +0.139   -0.110   +0.073      
+0.003   +0.005   +0.032   +0.086   -0.040   +0.072      
+0.007   +0.008   +0.022   -0.018   +0.049   +0.005      
+0.000   +0.006   +0.010   -0.057   +0.067   -0.069      
-0.002   -0.002   +0.001   -0.028   +0.025   -0.060      
+0.005   +0.003   +0.004   +0.011   -0.039   +0.019      
+0.011   +0.003   +0.004   -0.014   -0.052   +0.051      
+0.005   +0.018   +0.008   -0.058   +0.011   -0.019      
-0.005   +0.010   +0.020   -0.032   +0.056   -0.086      
-0.016   +0.009   +0.026   +0.054   +0.026   -0.035      
-0.025   +0.010   +0.014   +0.087   -0.069   +0.079      
-0.014   +0.008   +0.001   +0.008   -0.090   +0.113      
+0.013   -0.006   +0.000   -0.078   +0.017   +0.035      
+0.033   -0.015   +0.010   -0.040   +0.094   -0.040      
+0.021   -0.021   +0.001   +0.071   +0.039   -0.038      
-0.015   -0.013   +0.003   +0.096   -0.062   +0.000      
-0.035   +0.000   -0.004   +0.024   -0.085   +0.018      
-0.020   +0.018   +0.012   -0.059   -0.003   -0.001      
-0.004   +0.016   +0.009   -0.075   +0.091   -0.032      
+0.000   +0.010   -0.003   -0.012   +0.088   -0.037      
+0.003   +0.001   -0.018   +0.061   -0.009   +0.010      
+0.018   -0.020   -0.030   +0.075   -0.092   +0.069      
+0.028   -0.030   -0.036   +0.021   -0.057   +0.053      
+0.015   -0.037   -0.046   -0.025   +0.026   -0.009      
+0.009   -0.028   -0.050   -0.007   +0.038   -0.027      
-0.008   -0.023   -0.033   +0.022   -0.007   -0.006      
-0.005   -0.020   -0.013   -0.008   -0.017   -0.005      
-0.004   -0.014   -0.004   -0.064   +0.008   -0.037      
-0.005   +0.001   -0.009   -0.061   +0.014   -0.041      
-0.001   +0.008   -0.006   -0.014   +0.016   -0.008      
+0.012   -0.008   -0.007   +0.011   +0.028   +0.020      
+0.014   -0.016   +0.000   +0.000   +0.019   +0.012      
+0.004   -0.012   +0.008   +0.018   -0.037   -0.008      
-0.008   +0.007   +0.019   +0.069   -0.050   +0.005      
-0.015   +0.018   +0.029   +0.076   -0.021   +0.032      
-0.011   +0.016   +0.036   +0.012   -0.006   +0.036      
-0.005   +0.015   +0.039   -0.072   +0.009   -0.015      
+0.006   +0.009   +0.037   -0.093   +0.050   -0.072      
+0.008   +0.019   +0.029   -0.015   +0.041   -0.069      
+0.008   +0.020   +0.017   +0.059   -0.025   -0.005      
+0.004   +0.027   +0.003   +0.025   -0.044   +0.037      
+0.014   +0.023   +0.004   -0.069   +0.026   +0.011      
+0.015   +0.021   -0.002   -0.083   +0.066   -0.022      
+0.010   +0.017   +0.010   -0.002   -0.002   -0.002      
-0.011   +0.012   +0.030   +0.092   -0.081   +0.036      
-0.029   +0.008   +0.022   +0.105   -0.073   +0.056      
-0.028   -0.001   +0.007   +0.037   -0.009   +0.017      
-0.003   -0.014   -0.010   -0.042   +0.039   -0.054      
+0.020   -0.019   -0.018   -0.075   +0.041   -0.091      
+0.019   -0.023   -0.014   -0.063   +0.011   -0.032      
-0.005   -0.017   -0.013   -0.050   -0.032   +0.047      
-0.021   -0.029   -0.022   -0.079   -0.003   +0.039      
-0.017   -0.032   -0.030   -0.060   +0.065   -0.045      
+0.008   -0.026   -0.030   +0.040   +0.050   -0.054      
+0.015   -0.012   -0.026   +0.134   -0.068   +0.041      
+0.013   -0.002   -0.024   +0.104   -0.128   +0.102      
+0.011   -0.015   -0.017   -0.005   -0.057   +0.045      
+0.005   -0.028   -0.014   -0.040   +0.042   -0.049      
-0.009   -0.031   -0.011   +0.025   +0.051   -0.078      
-0.011   -0.014   -0.009   +0.068   -0.009   -0.042      
-0.013   +0.009   -0.011   -0.022   -0.048   +0.001      
-0.010   +0.019   -0.004   -0.134   +0.000   -0.003      
-0.005   +0.031   +0.007   -0.155   +0.075   -0.023      
-0.005   +0.041   +0.008   -0.059   +0.083   -0.035      
+0.015   +0.049   +0.018   +0.080   -0.013   +0.004      
+0.038   +0.038   +0.026   +0.142   -0.120   +0.055      
+0.037   +0.017   +0.023   +0.087   -0.090   +0.056      
+0.001   +0.013   +0.017   -0.013   +0.032   +0.000      
-0.028   -0.004   +0.016   -0.058   +0.076   -0.044      
-0.040   -0.001   +0.015   -0.034   +0.030   -0.039      
-0.018   +0.012   +0.021   -0.022   +0.004   -0.025      
-0.009   +0.035   +0.009   -0.042   +0.009   -0.042      
-0.004   +0.044   +0.003   -0.031   +0.002   -0.059      
-0.006   +0.023   -0.001   +0.017   -0.009   -0.039      
+0.001   +0.002   -0.003   +0.042   -0.007   +0.003      
+0.005   -0.026   -0.018   +0.006   -0.018   +0.022      
+0.012   -0.028   -0.016   -0.038   -0.045   +0.007      
+0.014   -0.029   -0.012   +0.003   -0.054   -0.005      
+0.017   -0.028   +0.008   +0.070   -0.013   +0.009      
+0.006   -0.026   +0.040   +0.071   +0.004   +0.025      
-0.013   -0.015   +0.050   -0.027   +0.000   -0.004      
-0.023   +0.003   +0.034   -0.123   +0.043   -0.056      
-0.005   -0.002   +0.014   -0.114   +0.059   -0.071      
+0.026   -0.017   +0.002   -0.037   -0.001   -0.026      
+0.025   -0.037   -0.006   +0.007   -0.054   +0.004      
-0.002   -0.047   -0.014   -0.013   -0.029   -0.024      
-0.025   -0.038   -0.016   -0.011   +0.027   -0.060      
-0.020   -0.020   -0.005   +0.033   +0.011   -0.041      
+0.020   +0.012   +0.004   +0.063   -0.059   +0.024      
+0.028   +0.031   -0.006   +0.020   -0.053   +0.065      
+0.024   +0.039   -0.027   -0.062   +0.031   +0.039      
+0.013   +0.033   -0.034   -0.092   +0.074   -0.037      
+0.000   +0.012   -0.036   -0.053   +0.058   -0.098      
-0.020   +0.002   -0.042   +0.018   -0.014   -0.070      
-0.022   -0.002   -0.039   +0.030   -0.068   +0.020      
-0.005   +0.017   -0.018   -0.059   -0.033   +0.037      
+0.010   +0.031   +0.017   -0.130   +0.045   -0.038      
-0.005   +0.039   +0.040   -0.061   +0.062   -0.081      
-0.025   +0.031   +0.034   +0.073   -0.020   -0.018      
-0.029   +0.010   +0.012   +0.108   -0.111   +0.066      
+0.008   -0.001   -0.002   -0.003   -0.085   +0.054      
+0.029   -0.017   -0.008   -0.122   +0.038   -0.033      
+0.019   -0.015   -0.004   -0.082   +0.072   -0.072      
-0.003   +0.004   +0.014   +0.026   +0.008   -0.044      
-0.023   +0.021   +0.014   +0.054   -0.073   +0.005      
-0.024   +0.024   +0.020   +0.000   -0.084   +0.016      
-0.006   +0.022   +0.034   -0.069   +0.011   -0.020      
+0.017   +0.018   +0.045   -0.076   +0.100   -0.055      
+0.031   -0.007   +0.052   -0.031   +0.063   -0.032      
+0.017   -0.036   +0.031   -0.001   -0.048   +0.033      
-0.015   -0.056   +0.011   -0.028   -0.096   +0.069      
-0.027   -0.041   -0.009   -0.074   -0.028   +0.033      
-0.004   -0.009   -0.021   -0.075   +0.040   -0.034      
+0.025   +0.008   -0.022   -0.020   +0.005   -0.043      
+0.036   +0.015   -0.010   +0.011   -0.036   -0.010      
+0.013   +0.001   +0.000   -0.028   -0.010   +0.005      
-0.011   -0.005   -0.010   -0.057   +0.011   -0.033      
-0.008   -0.009   -0.025   -0.024   +0.022   -0.052      
-0.004   -0.012   -0.036   +0.029   +0.027   -0.023      
+0.003   -0.011   -0.030   +0.028   +0.018   +0.027      
-0.025   -0.012   -0.035   -0.048   -0.014   +0.036      
-0.051   -0.002   -0.031   -0.074   -0.049   +0.026      
-0.043   +0.008   -0.030   -0.004   -0.034   +0.024      
-0.005   +0.024   -0.016   +0.070   -0.007   +0.025      
+0.043   +0.028   -0.008   +0.067   -0.028   +0.014      
+0.061   +0.024   -0.014   -0.015   -0.020   -0.041      
+0.045   +0.019   -0.019   -0.091   +0.043   -0.087      
+0.013   +0.000   -0.007   -0.084   +0.058   -0.055      
-0.020   -0.004   +0.006   -0.057   +0.016   +0.005      
-0.034   -0.003   +0.020   -0.060   +0.001   +0.022      
-0.024   +0.001   +0.030   -0.043   +0.028   +0.003      
+0.000   -0.017   +0.052   +0.021   +0.023   +0.003      
+0.004   -0.027   +0.062   +0.091   -0.060   +0.046      
-0.001   -0.032   +0.051   +0.081   -0.116   +0.091      
-0.001   -0.034   +0.026   -0.020   -0.059   +0.082      
+0.016   -0.014   +0.026   -0.109   +0.015   +0.011      
+0.031   -0.017   +0.014   -0.095   +0.050   -0.077      
+0.024   -0.015   +0.009   -0.006   +0.026   -0.102      
-0.008   -0.008   +0.013   +0.050   -0.034   -0.033      
-0.034   -0.009   +0.011   -0.012   -0.030   +0.038      
-0.032   -0.003   +0.014   -0.143   +0.064   +0.015      
-0.005   -0.008   +0.009   -0.152   +0.117   -0.032      
+0.026   -0.002   -0.006   -0.010   +0.049   +0.005      
+0.039   -0.007   -0.020   +0.122   -0.089   +0.105      
+0.027   -0.019   -0.028   +0.115   -0.137   +0.136      
+0.000   -0.028   -0.029   +0.007   -0.041   +0.055      
-0.024   -0.012   -0.034   -0.027   +0.068   -0.040      
-0.013   +0.022   -0.033   +0.024   +0.079   -0.058      
-0.003   +0.034   -0.029   +0.036   +0.013   -0.013      
+0.009   +0.039   -0.027   -0.040   -0.043   +0.017      
+0.006   +0.033   -0.017   -0.124   -0.010   +0.016      
-0.013   +0.025   -0.020   -0.123   +0.072   -0.014      
-0.018   +0.020   -0.020   -0.030   +0.067   -0.008      
+0.004   +0.014   -0.011   +0.066   -0.047   +0.057      
+0.019   +0.010   -0.006   +0.086   -0.142   +0.119      
+0.009   +0.007   -0.001   +0.048   -0.090   +0.115      
-0.017   +0.013   +0.007   +0.016   +0.034   +0.043      
-0.039   +0.005   +0.010   +0.023   +0.055   -0.017      
-0.034   -0.001   +0.007   +0.014   +0.004   -0.011      
-0.002   +0.000   +0.007   -0.079   +0.007   +0.014      
+0.025   +0.000   +0.001   -0.179   +0.042   +0.014      
+0.029   +0.009   -0.001   -0.193   +0.050   +0.004      
+0.017   -0.012   -0.002   -0.100   +0.041   +0.013      
-0.013   -0.012   +0.000   +0.034   +0.016   +0.050      
-0.028   -0.017   +0.002   +0.107   -0.026   +0.084      
-0.007   -0.004   +0.020   +0.101   -0.065   +0.074      
+0.026   +0.008   +0.030   +0.081   -0.051   +0.055      
+0.039   -0.015   +0.045   +0.050   +0.007   +0.060      
+0.010   -0.024   +0.039   -0.003   +0.024   +0.065      
-0.020   -0.023   +0.029   -0.069   +0.007   +0.034      
-0.029   -0.017   +0.018   -0.096   +0.013   -0.027      
-0.005   -0.015   +0.006   -0.035   +0.016   -0.037      
+0.008   -0.010   +0.006   +0.040   -0.018   +0.016      
+0.012   -0.002   +0.018   +0.012   -0.040   +0.058      
+0.004   -0.005   +0.024   -0.071   +0.006   +0.046      
+0.006   -0.005   +0.029   -0.095   +0.066   +0.028      
+0.010   +0.006   +0.021   -0.008   +0.031   +0.049      
+0.017   +0.011   +0.006   +0.090   -0.042   +0.089      
+0.020   +0.009   -0.012   +0.093   -0.046   +0.106      
+0.010   +0.005   -0.030   +0.007   +0.024   +0.073      
-0.022   +0.011   -0.034   -0.079   +0.085   +0.001      
-0.060   +0.016   -0.047   -0.078   +0.080   -0.049      
-0.053   +0.041   -0.048   +0.002   +0.001   -0.017      
-0.017   +0.049   -0.034   +0.062   -0.064   +0.056      
+0.019   +0.040   -0.021   +0.028   -0.035   +0.065      
+0.038   +0.027   -0.008   -0.028   +0.044   -0.014      
+0.008   +0.008   -0.010   +0.003   +0.051   -0.044      
-0.005   -0.008   -0.023   +0.065   -0.033   +0.039      
-0.009   -0.026   -0.031   +0.041   -0.081   +0.123      
+0.002   -0.026   -0.030   -0.076   -0.025   +0.100      
+0.014   -0.023   -0.022   -0.120   +0.055   +0.006      
+0.014   -0.013   -0.019   -0.028   +0.076   -0.051      
+0.000   -0.014   -0.009   +0.069   +0.018   -0.015      
-0.013   -0.022   +0.003   +0.039   -0.065   +0.049      
-0.007   -0.014   +0.017   -0.079   -0.072   +0.068      
+0.015   +0.000   +0.024   -0.139   +0.023   +0.030      
+0.027   -0.006   +0.028   -0.050   +0.094   -0.010      
+0.020   -0.006   +0.037   +0.101   +0.027   +0.022      
+0.003   -0.023   +0.054   +0.163   -0.106   +0.093      
-0.021   -0.021   +0.053   +0.079   -0.116   +0.107      
-0.033   -0.011   +0.046   -0.045   +0.010   +0.061      
-0.011   -0.018   +0.039   -0.089   +0.087   +0.006      
+0.024   -0.036   +0.051   -0.034   +0.046   -0.001      
+0.038   -0.026   +0.051   +0.015   -0.004   +0.024      
+0.013   -0.008   +0.050   -0.001   -0.004   +0.023      
-0.018   +0.007   +0.018   -0.002   +0.009   +0.000      
-0.020   +0.022   +0.005   +0.008   +0.033   -0.014      
+0.001   +0.032   -0.011   +0.024   +0.049   +0.010      
+0.014   +0.052   -0.028   +0.021   +0.013   +0.065      
+0.005   +0.058   -0.050   -0.008   -0.049   +0.095      
-0.014   +0.053   -0.062   -0.016   -0.078   +0.075      
-0.034   +0.041   -0.070   +0.026   -0.053   +0.056      
-0.040   +0.027   -0.072   +0.058   -0.018   +0.063      
-0.016   +0.027   -0.069   +0.000   -0.004   +0.047      
+0.022   +0.021   -0.056   -0.094   +0.021   -0.013      
+0.042   +0.003   -0.040   -0.095   +0.050   -0.049      
+0.025   -0.013   -0.020   +0.012   +0.036   -0.015      
-0.017   -0.017   -0.023   +0.097   -0.004   +0.040      
-0.025   -0.002   -0.008   +0.082   -0.010   +0.037      
-0.005   +0.003   +0.011   +0.030   +0.015   +0.002      
+0.026   +0.010   +0.027   +0.020   -0.014   +0.010      
+0.014   +0.001   +0.030   +0.046   -0.082   +0.061      
+0.001   -0.014   +0.033   +0.043   -0.100   +0.102      
-0.014   -0.037   +0.033   +0.000   -0.044   +0.083      
+0.000   -0.051   +0.035   -0.026   +0.032   +0.005      
+0.016   -0.057   +0.027   +0.006   +0.076   -0.065      
+0.027   -0.055   +0.023   +0.056   +0.045   -0.053      
+0.022   -0.051   +0.023   +0.060   -0.020   +0.033      
+0.002   -0.054   +0.022   -0.039   -0.014   +0.085      
-0.020   -0.041   +0.014   -0.129   +0.065   +0.030      
-0.019   -0.018   +0.014   -0.088   +0.092   -0.047      
+0.004   -0.009   +0.013   +0.077   +0.007   -0.019      
+0.035   +0.007   +0.019   +0.184   -0.119   +0.077      
+0.026   +0.005   +0.014   +0.110   -0.127   +0.100      
-0.009   +0.010   +0.024   -0.040   -0.014   +0.015      
-0.038   +0.010   +0.020   -0.071   +0.067   -0.057      
-0.030   +0.022   +0.004   +0.023   +0.056   -0.046      
+0.004   +0.025   -0.006   +0.079   -0.024   +0.015      
+0.028   +0.035   -0.001   +0.036   -0.073   +0.035      
+0.016   +0.041   -0.008   -0.029   -0.020   -0.001      
-0.010   +0.028   -0.023   -0.013   +0.066   -0.040      
-0.024   +0.020   -0.034   +0.059   +0.057   -0.026      
-0.011   +0.018   -0.030   +0.099   -0.054   +0.042      
+0.010   +0.026   -0.026   +0.069   -0.129   +0.082      
+0.020   +0.039   -0.019   +0.021   -0.056   +0.054      
+0.004   +0.041   -0.022   +0.020   +0.059   -0.016      
-0.019   +0.038   -0.012   +0.070   +0.063   -0.049      
-0.051   +0.029   -0.008   +0.085   +0.013   -0.038      
-0.034   +0.028   +0.001   +0.017   +0.008   -0.020      
+0.013   +0.019   +0.005   -0.054   +0.027   -0.017      
+0.052   +0.008   +0.018   -0.056   +0.037   -0.023      
+0.033   -0.009   +0.026   +0.001   +0.025   -0.005      
-0.001   -0.022   +0.024   +0.062   -0.005   +0.038      
-0.027   -0.017   +0.015   +0.053   -0.044   +0.060      
-0.009   -0.015   +0.006   +0.040   -0.081   +0.033      
+0.015   -0.011   -0.009   +0.059   -0.060   +0.008      
+0.022   -0.015   -0.023   +0.092   -0.013   +0.010      
+0.007   -0.016   -0.038   +0.080   -0.009   +0.026      
-0.014   -0.027   -0.045   +0.012   -0.015   -0.004      
-0.027   -0.026   -0.041   -0.047   +0.025   -0.057      
-0.005   -0.021   -0.022   -0.001   +0.024   -0.034      
+0.004   -0.016   +0.007   +0.027   -0.007   +0.023      
+0.032   -0.010   +0.025   -0.011   +0.000   +0.018      
+0.022   -0.023   +0.047   -0.015   +0.029   -0.026      
-0.005   -0.036   +0.045   +0.065   +0.029   -0.034      
-0.007   -0.028   +0.039   +0.159   -0.035   +0.023      
+0.010   -0.023   +0.033   +0.144   -0.088   +0.084      
+0.035   -0.021   +0.032   +0.028   -0.041   +0.084      
+0.040   -0.021   +0.029   -0.055   +0.041   +0.026      
+0.013   -0.010   +0.020   -0.036   +0.072   -0.053      
-0.027   +0.000   +0.006   +0.045   +0.027   -0.075      
-0.047   +0.015   +0.000   +0.099   -0.069   -0.015      
-0.032   +0.027   +0.004   +0.042   -0.069   +0.038      
-0.004   +0.031   +0.007   -0.074   +0.047   +0.003      
+0.002   +0.050   +0.000   -0.096   +0.117   -0.051      
-0.002   +0.056   -0.013   +0.002   +0.057   -0.018      
-0.009   +0.036   -0.035   +0.111   -0.064   +0.083      
-0.013   +0.033   -0.048   +0.117   -0.097   +0.129      
+0.000   +0.028   -0.051   +0.031   -0.013   +0.051      
+0.011   +0.019   -0.046   +0.007   +0.040   -0.040      
+0.012   +0.015   -0.025   +0.047   +0.016   -0.042      
+0.006   +0.024   -0.001   +0.056   -0.038   +0.009      
-0.007   +0.025   -0.001   -0.011   -0.075   +0.045      
-0.017   +0.026   +0.002   -0.075   -0.022   +0.003      
-0.010   +0.021   -0.012   -0.039   +0.081   -0.055      
+0.004   +0.002   -0.015   +0.089   +0.097   -0.044      
+0.007   -0.019   -0.011   +0.173   -0.004   +0.019      
-0.011   -0.037   -0.009   +0.132   -0.096   +0.066      
-0.027   -0.027   -0.016   +0.041   -0.051   +0.070      
-0.015   -0.026   -0.006   -0.007   +0.069   +0.033      
+0.020   -0.021   +0.006   +0.017   +0.076   +0.017      
+0.037   -0.014   +0.024   +0.042   -0.014   +0.030      
+0.045   -0.010   +0.019   +0.003   -0.059   +0.041      
+0.016   -0.016   +0.035   -0.049   -0.040   +0.034      
-0.009   -0.034   +0.041   -0.071   +0.008   +0.010      
-0.012   -0.037   +0.045   -0.055   +0.036   -0.010      
-0.005   -0.040   +0.035   -0.009   +0.026   +0.020      
+0.008   -0.033   +0.030   +0.000   -0.007   +0.038      
+0.020   -0.025   +0.032   -0.009   -0.045   +0.033      
+0.007   -0.023   +0.032   +0.018   -0.037   +0.020      
-0.015   -0.009   +0.017   +0.060   +0.007   +0.026      
-0.021   +0.001   -0.002   +0.067   +0.023   +0.048      
+0.000   +0.009   -0.020   +0.013   +0.022   +0.030      
+0.027   +0.004   -0.022   -0.037   +0.038   -0.018      
+0.024   +0.027   -0.026   +0.005   +0.021   -0.016      
+0.001   +0.039   -0.029   +0.083   -0.020   +0.040      
-0.020   +0.027   -0.040   +0.085   -0.033   +0.062      
-0.023   +0.037   -0.041   +0.025   -0.001   +0.015      
-0.013   +0.023   -0.040   -0.017   +0.027   -0.027      
-0.002   +0.024   -0.025   +0.023   -0.010   +0.012      
-0.007   +0.016   -0.037   +0.045   -0.043   +0.075      
-0.015   -0.004   -0.030   -0.020   -0.028   +0.065      
-0.017   -0.012   -0.018   -0.099   +0.022   +0.009      
-0.006   -0.005   -0.014   -0.100   +0.074   -0.045      
+0.009   +0.015   -0.012   -0.030   +0.084   -0.048      
+0.024   +0.018   -0.004   +0.030   +0.015   +0.020      
+0.020   +0.018   +0.015   +0.004   -0.038   +0.087      
+0.000   +0.010   +0.031   -0.069   +0.004   +0.081      
-0.028   -0.005   +0.029   -0.075   +0.066   +0.007      
-0.026   -0.011   +0.029   +0.031   +0.023   -0.032      
+0.000   -0.028   +0.025   +0.150   -0.114   +0.025      
+0.030   -0.032   +0.026   +0.155   -0.167   +0.088      
+0.017   -0.035   +0.016   +0.018   -0.065   +0.047      
-0.003   -0.028   -0.001   -0.123   +0.053   -0.044      
-0.017   -0.027   -0.013   -0.117   +0.079   -0.085      
+0.007   -0.022   -0.016   -0.021   +0.030   -0.031      
+0.021   -0.009   -0.016   +0.046   -0.034   +0.036      
+0.023   +0.004   -0.008   +0.036   -0.024   +0.035      
+0.016   +0.011   +0.001   -0.005   +0.055   -0.010      
+0.005   -0.004   +0.008   -0.001   +0.090   -0.015      
-0.013   -0.005   +0.010   +0.009   +0.015   +0.053      
-0.014   +0.007   +0.018   -0.029   -0.091   +0.106      
-0.001   +0.012   +0.022   -0.075   -0.072   +0.073      
+0.019   +0.003   +0.026   -0.046   +0.036   -0.013      
+0.010   +0.000   +0.018   +0.056   +0.071   -0.066      
-0.020   -0.014   +0.001   +0.111   +0.010   -0.058      
-0.034   -0.008   -0.015   +0.043   -0.035   -0.017      
-0.006   +0.007   -0.034   -0.075   -0.014   +0.005      
+0.022   +0.002   -0.034   -0.132   +0.018   -0.002      
+0.026   +0.013   -0.011   -0.078   +0.019   -0.020      
+0.005   +0.030   +0.004   +0.035   -0.004   -0.007      
-0.015   +0.028   +0.019   +0.095   -0.034   +0.035      
-0.020   +0.028   +0.027   +0.052   -0.042   +0.056      
-0.010   +0.024   +0.024   -0.026   -0.012   +0.025      
+0.000   +0.025   +0.026   -0.055   +0.039   +0.002      
+0.007   +0.024   +0.017   -0.032   +0.051   +0.005      
-0.001   +0.004   +0.009   -0.019   +0.042   -0.010      
-0.009   -0.006   -0.008   -0.033   +0.025   -0.058      
-0.003   -0.011   -0.014   -0.013   +0.000   -0.078      
+0.014   -0.005   -0.024   +0.028   -0.026   -0.026      
+0.022   -0.006   -0.036   +0.009   -0.038   +0.032      
+0.011   -0.012   -0.039   -0.063   -0.012   +0.024      
+0.006   -0.022   -0.042   -0.074   -0.004   -0.018      
-0.019   -0.029   -0.037   +0.000   -0.020   -0.024      
-0.007   -0.018   -0.039   +0.083   -0.033   +0.015      
+0.007   -0.016   -0.025   +0.066   -0.023   +0.037      
+0.025   -0.007   -0.005   -0.036   +0.018   +0.003      
+0.012   -0.002   +0.008   -0.098   +0.074   -0.053      
-0.021   -0.002   +0.003   -0.053   +0.076   -0.062      
-0.039   -0.003   -0.004   +0.035   -0.016   -0.019      
-0.020   -0.005   +0.011   +0.093   -0.110   +0.039      
+0.018   +0.004   +0.028   +0.050   -0.082   +0.030      
+0.031   +0.007   +0.036   -0.005   +0.034   -0.029      
+0.020   +0.011   +0.035   -0.009   +0.068   -0.063      
+0.000   +0.006   +0.040   +0.018   -0.007   -0.007      
-0.013   +0.002   +0.034   +0.003   -0.050   +0.055      
-0.012   +0.005   +0.029   -0.065   +0.014   +0.033      
-0.003   +0.013   +0.012   -0.094   +0.089   -0.067      
+0.004   +0.003   +0.008   -0.025   +0.097   -0.133      
+0.000   -0.002   +0.014   +0.069   +0.035   -0.080      
-0.010   -0.008   +0.004   +0.069   -0.050   +0.025      
-0.018   +0.002   -0.015   -0.038   -0.068   +0.064      
-0.001   +0.022   -0.020   -0.123   +0.006   +0.005      
+0.033   +0.030   -0.018   -0.058   +0.065   -0.055      
+0.036   +0.020   -0.017   +0.101   +0.006   -0.023      
+0.004   +0.014   -0.024   +0.159   -0.107   +0.032      
-0.035   +0.003   -0.023   +0.082   -0.107   +0.027      
-0.043   -0.002   -0.023   -0.033   +0.025   -0.035      
-0.020   +0.002   -0.013   -0.074   +0.125   -0.093      
+0.000   -0.004   -0.016   -0.052   +0.099   -0.108      
+0.010   +0.003   -0.011   -0.032   +0.020   -0.093      
+0.008   -0.004   -0.001   -0.013   -0.033   -0.065      
+0.019   -0.016   +0.008   +0.055   -0.042   -0.007      
+0.019   -0.024   +0.008   +0.126   -0.047   +0.079      
+0.008   -0.017   +0.009   +0.103   -0.062   +0.164      
+0.015   -0.008   +0.010   -0.035   -0.050   +0.209      
+0.015   -0.008   +0.023   -0.188   +0.026   +0.131      
+0.003   -0.008   +0.030   -0.239   +0.141   -0.093      
-0.021   -0.008   +0.031   -0.122   +0.189   -0.340      
-0.032   +0.005   +0.021   +0.054   +0.089   -0.409      
-0.007   +0.009   +0.018   +0.121   -0.059   -0.281      
+0.024   +0.010   +0.011   +0.010   -0.093   -0.112      
+0.026   +0.013   +0.002   -0.146   -0.040   +0.014      
-0.001   +0.004   -0.015   -0.158   -0.038   +0.135      
-0.026   +0.017   -0.030   -0.017   -0.079   +0.245      
-0.023   +0.005   -0.040   +0.181   -0.096   +0.254      
+0.007   +0.009   -0.036   +0.365   -0.076   +0.151      
+0.025   +0.010   -0.044   +0.455   -0.074   +0.033      
+0.025   +0.005   -0.028   +0.320   -0.054   -0.046      
+0.013   -0.001   -0.030   -0.038   +0.064   -0.122      
-0.002   -0.017   -0.010   -0.366   +0.209   -0.218      
-0.016   -0.010   -0.005   -0.419   +0.287   -0.316      
-0.012   -0.005   +0.000   -0.231   +0.256   -0.346      
+0.001   +0.001   -0.006   -0.013   +0.078   -0.221      
+0.009   -0.002   +0.006   +0.093   -0.105   +0.007      
-0.008   -0.014   +0.011   +0.069   -0.111   +0.174      
-0.022   -0.001   +0.012   +0.007   -0.050   +0.198      
-0.019   -0.002   +0.005   +0.041   -0.106   +0.164      
+0.015   +0.006   +0.006   +0.172   -0.230   +0.165      
+0.038   +0.001   +0.004   +0.256   -0.206   +0.151      
+0.022   +0.001   +0.018   +0.176   -0.002   +0.025      
+0.000   -0.003   +0.025   -0.043   +0.154   -0.171      
-0.022   -0.011   +0.030   -0.267   +0.171   -0.287      
-0.021   -0.011   +0.035   -0.389   +0.157   -0.242      
-0.002   -0.011   +0.035   -0.376   +0.127   -0.095      
+0.011   +0.000   +0.029   -0.241   +0.046   +0.009      
+0.010   -0.006   +0.023   -0.010   -0.004   -0.021      
-0.001   -0.020   +0.010   +0.265   +0.014   -0.082      
-0.008   -0.023   +0.002   +0.470   -0.010   -0.043      
-0.004   -0.011   -0.008   +0.435   -0.125   +0.082      
+0.008   +0.013   -0.019   +0.148   -0.187   +0.149      
+0.010   +0.012   -0.025   -0.144   -0.068   +0.107      
+0.004   +0.034   -0.014   -0.191   +0.106   +0.013      
-0.007   +0.018   -0.001   -0.036   +0.119   -0.049      
-0.014   +0.035   -0.013   +0.111   +0.002   -0.073      
-0.007   +0.033   -0.024   +0.116   -0.080   -0.072      
+0.016   +0.034   -0.022   +0.007   -0.048   -0.039      
+0.018   +0.035   -0.007   -0.137   +0.023   -0.007      
-0.008   +0.033   -0.014   -0.201   +0.028   +0.009      
-0.039   +0.023   -0.022   -0.098   -0.037   +0.020      
-0.039   +0.007   -0.022   +0.112   -0.076   -0.019      
-0.011   +0.007   -0.010   +0.263   -0.046   -0.169      
+0.026   +0.003   -0.001   +0.260   +0.034   -0.372      
